ply
format ascii 1.0
element vertex 713
property float x
property float y
property float z
property uchar red
property uchar green
property uchar blue
end_header
-6.2568511962890625 -1.5102397203445435 13.401926040649414 255 125 0
-6.292513370513916 -6.964443683624268 -4.180234909057617 255 125 0
6.339736461639404 -9.826620101928711 -5.801589012145996 255 125 0
4.898671627044678 -8.034671783447266 -9.450997352600098 255 125 0
6.690280437469482 5.6761040687561035 -10.83897876739502 255 125 0
-9.400832176208496 -0.7678214907646179 2.9685184955596924 255 125 0
-14.696281433105469 -4.758752822875977 1.4553627967834473 255 125 0
-11.414445877075195 -1.7170342206954956 8.117947578430176 255 125 0
0.958360493183136 -2.6775643825531006 9.334921836853027 255 125 0
-7.476137161254883 -4.178019046783447 -8.095144271850586 255 125 0
2.4887747764587402 3.5793826580047607 7.686913013458252 255 125 0
4.016284465789795 -2.6685497760772705 11.114303588867188 255 125 0
-12.260015487670898 14.795592308044434 -6.601518154144287 255 125 0
8.240259170532227 -16.24174690246582 -8.085835456848145 255 125 0
-13.432337760925293 -4.036298751831055 -2.0013976097106934 255 125 0
0.9658389687538147 -2.002842903137207 7.653116703033447 255 125 0
11.462483406066895 7.666191577911377 -8.234565734863281 255 125 0
7.48105525970459 2.1670265197753906 1.6667072772979736 255 125 0
9.03518295288086 -16.142915725708008 -8.0916748046875 255 125 0
-2.8717637062072754 8.41093921661377 -7.84112024307251 255 125 0
11.125255584716797 7.961848735809326 1.953039288520813 255 125 0
-3.1219918727874756 8.452703475952148 -7.863287448883057 255 125 0
-9.797941207885742 17.38941764831543 -3.2423036098480225 255 125 0
-8.878650665283203 -0.776793360710144 10.14417552947998 255 125 0
10.646413803100586 7.61602258682251 3.233579158782959 255 125 0
1.1622971296310425 12.486479759216309 -12.53648567199707 255 125 0
7.787222385406494 3.586346387863159 -3.445704936981201 255 125 0
-7.87465238571167 11.602767944335938 -12.373697280883789 255 125 0
3.919578790664673 -9.094517707824707 -7.023713111877441 255 125 0
-13.464284896850586 16.93071937561035 -0.3047652542591095 255 125 0
-13.21688175201416 12.691169738769531 -1.3200278282165527 255 125 0
8.114326477050781 5.6692352294921875 9.117179870605469 255 125 0
-9.752161979675293 10.830382347106934 -9.005011558532715 255 125 0
4.330539226531982 -8.369657516479492 -11.86455249786377 255 125 0
-5.645857334136963 -5.066347599029541 6.10669469833374 255 125 0
1.0987316370010376 -13.276606559753418 -9.226892471313477 255 125 0
-13.4730863571167 15.729752540588379 -2.3146767616271973 255 125 0
2.2908520698547363 -3.019946813583374 11.806480407714844 255 125 0
6.882297992706299 -10.41037654876709 -11.96806526184082 255 125 0
-5.351998805999756 0.21418476104736328 5.954391956329346 255 125 0
-6.002417087554932 13.17572021484375 -4.596424579620361 255 125 0
7.161015510559082 7.485574245452881 -12.027897834777832 255 125 0
10.926655769348145 -15.367301940917969 -7.205043792724609 255 125 0
8.732747077941895 -16.46995735168457 -6.274768352508545 255 125 0
9.437358856201172 -10.910625457763672 -2.6724581718444824 255 125 0
-11.359516143798828 -8.340330123901367 1.1462194919586182 255 125 0
11.141922950744629 -12.263473510742188 -8.716721534729004 255 125 0
7.721546649932861 0.1516677588224411 5.375263690948486 255 125 0
6.504983425140381 -12.811232566833496 -4.00799036026001 255 125 0
-12.761490821838379 -7.548490524291992 0.2706907391548157 255 125 0
-8.30404281616211 -2.2176668643951416 11.83664608001709 255 125 0
-12.693490028381348 -2.6747078895568848 5.501605987548828 255 125 0
9.430438041687012 3.0563883781433105 -4.361954212188721 255 125 0
-7.772617340087891 16.389141082763672 1.5071216694195755e-05 255 125 0
14.439901351928711 5.250166416168213 -1.5666091442108154 255 125 0
12.186176300048828 -14.4119234085083 -6.993047714233398 255 125 0
8.320873260498047 6.815484523773193 3.0643465518951416 255 125 0
-12.733254432678223 -2.26572847366333 4.075101375579834 255 125 0
-10.055694580078125 -2.8411381244659424 -4.545088291168213 255 125 0
-7.985044002532959 9.134696006774902 -9.783918380737305 255 125 0
-12.471098899841309 15.16808032989502 -5.809237480163574 255 125 0
12.724394798278809 -12.595661163330078 -6.601499557495117 255 125 0
11.725961685180664 8.505021095275879 -6.018489837646484 255 125 0
-5.1819167137146 8.270234107971191 -11.242154121398926 255 125 0
5.357477188110352 2.717325210571289 5.35241174697876 255 125 0
-4.301044464111328 13.04946231842041 -6.3898749351501465 255 125 0
9.74821662902832 1.9047473669052124 -0.2861292362213135 255 125 0
10.600003242492676 -17.760482788085938 -2.6670665740966797 255 125 0
6.614452362060547 10.396810531616211 -6.663886070251465 255 125 0
-9.495987892150879 13.994263648986816 1.8294676920049824e-05 255 125 0
-3.1102890968322754 11.050219535827637 -6.8831024169921875 255 125 0
3.2394416332244873 -12.24197769165039 -6.829605579376221 255 125 0
9.238487243652344 -15.530281066894531 -8.452693939208984 255 125 0
1.5074074268341064 -9.33177375793457 -7.547043800354004 255 125 0
-0.6324920654296875 -12.143917083740234 -12.909897804260254 255 125 0
-7.8583221435546875 -1.8663015365600586 12.409292221069336 255 125 0
1.0192234516143799 6.552900791168213 -9.332499504089355 255 125 0
-1.6129546165466309 10.7709321975708 -14.438490867614746 255 125 0
-9.274328231811523 -2.9782493114471436 -2.9479446411132812 255 125 0
11.30771541595459 -16.42772102355957 -5.977444171905518 255 125 0
6.287904739379883 0.655639111995697 4.5481648445129395 255 125 0
4.000062465667725 -14.4653902053833 -11.515727043151855 255 125 0
6.025613307952881 10.407218933105469 -6.554681301116943 255 125 0
-13.287951469421387 -4.048669338226318 5.4734039306640625 255 125 0
1.608561396598816 -1.782056212425232 7.6005859375 255 125 0
-9.22607135772705 13.322427749633789 1.7744037904776633e-05 255 125 0
-12.499534606933594 -8.477035522460938 -3.518082618713379 255 125 0
-1.838448405265808 -12.026124000549316 -8.3799467086792 255 125 0
9.330583572387695 1.1355563402175903 10.015909194946289 255 125 0
3.9938766956329346 -7.3164567947387695 -11.13953685760498 255 125 0
-0.16686245799064636 6.834310531616211 -9.786721229553223 255 125 0
-8.756531715393066 -1.9034236669540405 0.9189090132713318 255 125 0
-0.27852383255958557 1.2063666582107544 14.002019882202148 255 125 0
-5.363846778869629 -4.966670036315918 7.230920791625977 255 125 0
-6.781113624572754 -0.19926857948303223 12.036258697509766 255 125 0
10.855680465698242 8.03617000579834 -8.99609088897705 255 125 0
10.237985610961914 -0.270910382270813 7.305083274841309 255 125 0
9.340797424316406 -11.891525268554688 -0.4865633249282837 255 125 0
-0.3683865964412689 0.8640957474708557 14.211487770080566 255 125 0
-9.060967445373535 9.578566551208496 -8.535839080810547 255 125 0
11.794232368469238 -11.139823913574219 -6.10131311416626 255 125 0
5.275252819061279 -1.4535412788391113 8.626509666442871 255 125 0
-7.907145977020264 9.697786331176758 -10.656880378723145 255 125 0
-11.682730674743652 -6.694662570953369 4.535615921020508 255 125 0
-10.452774047851562 -0.5480365753173828 3.047842264175415 255 125 0
7.639377117156982 -1.112614393234253 7.869415760040283 255 125 0
-4.833516597747803 12.079156875610352 -13.038161277770996 255 125 0
-11.15002155303955 -0.868696928024292 6.692978382110596 255 125 0
-0.8897916078567505 10.035738945007324 -14.590774536132812 255 125 0
8.326009750366211 3.9240005016326904 -8.943522453308105 255 125 0
2.966906785964966 3.7161083221435547 7.366687774658203 255 125 0
-0.5884077548980713 6.839082717895508 -10.245729446411133 255 125 0
-9.001056671142578 -6.937222957611084 -10.834177017211914 255 125 0
10.486992835998535 0.05936701223254204 7.197173595428467 255 125 0
-1.8391412496566772 6.831598281860352 -11.661761283874512 255 125 0
0.07739777863025665 11.160209655761719 -13.745222091674805 255 125 0
-12.584169387817383 12.230310440063477 -5.706815242767334 255 125 0
-0.5380142331123352 -10.424633026123047 -14.182965278625488 255 125 0
7.397222518920898 5.916769027709961 8.668549537658691 255 125 0
10.232074737548828 -16.579452514648438 6.904141969243938e-08 255 125 0
6.711691379547119 7.158162593841553 -3.4961931705474854 255 125 0
3.0043601989746094 -9.33299732208252 -13.472919464111328 255 125 0
-3.036619186401367 -5.618373870849609 -10.788617134094238 255 125 0
2.5991013050079346 -11.071148872375488 -14.328773498535156 255 125 0
-4.180366039276123 14.62381362915039 -8.98386287689209 255 125 0
2.1859264373779297 0.1349172443151474 14.2036771774292 255 125 0
2.9479005336761475 1.494558334350586 13.678184509277344 255 125 0
8.963088035583496 -11.563191413879395 -1.3822886943817139 255 125 0
12.60342788696289 -12.860733032226562 -9.351081331487876e-08 255 125 0
-11.089415550231934 -9.719406127929688 -5.331361293792725 255 125 0
11.807493209838867 -11.7106294631958 -6.869211196899414 255 125 0
-9.688676834106445 -9.084192276000977 -2.9560368061065674 255 125 0
11.259865760803223 1.1915398836135864 0.8511393666267395 255 125 0
-3.9360358715057373 -10.121661186218262 -13.597540855407715 255 125 0
-7.131737232208252 15.109036445617676 -2.633284568786621 255 125 0
1.3149173259735107 10.894658088684082 -7.469271183013916 255 125 0
13.51451587677002 -13.287113189697266 -3.010896921157837 255 125 0
6.43778657913208 11.633212089538574 -9.051177024841309 255 125 0
10.45814037322998 0.004139248747378588 4.615979194641113 255 125 0
6.878586292266846 0.2986644506454468 12.021939277648926 255 125 0
-6.902574062347412 9.415082931518555 -6.681478023529053 255 125 0
9.996071815490723 8.03676986694336 -10.615985870361328 255 125 0
11.437894821166992 6.4617791175842285 -8.471061706542969 255 125 0
-7.944364070892334 -6.266623020172119 4.628274440765381 255 125 0
2.3475770950317383 -12.973265647888184 -12.972343444824219 255 125 0
-12.190516471862793 -3.425692319869995 8.135056495666504 255 125 0
7.8565287590026855 -1.1301350593566895 9.334576606750488 255 125 0
7.460641384124756 -16.290430068969727 -1.2632834911346436 255 125 0
5.672694206237793 -14.733835220336914 -4.9824748039245605 255 125 0
-5.468314170837402 -10.470772743225098 -6.542993545532227 255 125 0
13.422309875488281 -12.897695541381836 -0.6281968355178833 255 125 0
11.391885757446289 6.771308422088623 4.896103382110596 255 125 0
-11.370327949523926 -8.92635726928711 -0.914827287197113 255 125 0
-9.763259887695312 0.06725217401981354 5.1230902671813965 255 125 0
-12.509391784667969 -2.4924838542938232 5.7017621994018555 255 125 0
-13.350442886352539 13.224575996398926 -4.493008136749268 255 125 0
10.810068130493164 -11.555005073547363 -8.276771545410156 255 125 0
11.687280654907227 9.671839714050293 -3.3864545822143555 255 125 0
11.044097900390625 -15.539168357849121 -6.9602952003479 255 125 0
6.1414337158203125 4.531231880187988 11.199108123779297 255 125 0
-8.028031349182129 1.3804956674575806 8.604920387268066 255 125 0
-11.657316207885742 -1.4744551181793213 -0.806021511554718 255 125 0
-13.238548278808594 15.550020217895508 -3.22428560256958 255 125 0
-0.2531798481941223 -3.8364126682281494 11.996489524841309 255 125 0
9.578402519226074 -10.729141235351562 -3.1524996757507324 255 125 0
-7.223049163818359 -5.452804088592529 -10.470115661621094 255 125 0
-6.639674186706543 1.3078651428222656 8.325196266174316 255 125 0
1.7546391487121582 6.964419841766357 -12.622961044311523 255 125 0
2.3718535900115967 6.900429725646973 -12.640339851379395 255 125 0
0.6563037037849426 -13.892119407653809 -11.708647727966309 255 125 0
-0.04522690176963806 -7.5386247634887695 -12.849203109741211 255 125 0
10.393879890441895 -10.135388374328613 -6.998791217803955 255 125 0
-3.894757032394409 -8.499529838562012 -6.467454433441162 255 125 0
-1.5794024467468262 -13.30240535736084 -11.866671562194824 255 125 0
13.108708381652832 4.084614276885986 -3.5081260204315186 255 125 0
10.332082748413086 -13.120244979858398 -9.769421577453613 255 125 0
-8.938459396362305 -3.058109760284424 -2.746649742126465 255 125 0
5.618646144866943 0.29501309990882874 12.91258716583252 255 125 0
-9.681323051452637 13.555679321289062 -9.91148853302002 255 125 0
-1.6906098127365112 -3.2535173892974854 12.502152442932129 255 125 0
3.5755579471588135 12.844490051269531 -11.605746269226074 255 125 0
-13.60209846496582 -3.3515329360961914 0.7190889716148376 255 125 0
1.112612247467041 -10.564042091369629 -7.660327434539795 255 125 0
3.728646993637085 -2.4656784534454346 11.5819091796875 255 125 0
7.7603654861450195 -12.84804916381836 -0.014845719560980797 255 125 0
-5.035808563232422 13.335728645324707 -5.7281813621521 255 125 0
-0.6157404780387878 7.14456844329834 -9.511972427368164 255 125 0
-8.155308723449707 -3.078145742416382 -1.8382705450057983 255 125 0
-8.216293334960938 -2.273036003112793 0.21389219164848328 255 125 0
-6.878669261932373 1.4522957801818848 8.723587036132812 255 125 0
13.090946197509766 4.793874263763428 -4.749480247497559 255 125 0
-0.8030999302864075 -7.159241676330566 -12.660479545593262 255 125 0
1.192058801651001 -12.209407806396484 -13.33906364440918 255 125 0
7.3621649742126465 2.8594565391540527 11.869970321655273 255 125 0
12.91479206085205 5.326221466064453 4.309472560882568 255 125 0
-9.473849296569824 10.091748237609863 -8.507667541503906 255 125 0
7.674199104309082 -0.35045987367630005 6.3106794357299805 255 125 0
-6.039172172546387 1.6224714517593384 9.122815132141113 255 125 0
5.307420253753662 -1.246159553527832 11.8335542678833 255 125 0
2.338819742202759 0.7030954957008362 14.30196475982666 255 125 0
-1.796808123588562 -0.11424954235553741 14.348052978515625 255 125 0
0.51835697889328 8.01258659362793 -13.23012638092041 255 125 0
-11.961734771728516 -1.1033657789230347 3.7362558841705322 255 125 0
-2.5363125801086426 -10.696949005126953 -7.2999114990234375 255 125 0
5.6003522872924805 -10.684419631958008 -5.06717586517334 255 125 0
-2.425849437713623 -11.630598068237305 -8.007208824157715 255 125 0
-8.919778823852539 -0.4523373246192932 9.734896659851074 255 125 0
-11.532280921936035 -2.1255033016204834 -3.362013578414917 255 125 0
-7.377668857574463 16.03287696838379 -3.7124593257904053 255 125 0
-7.510326862335205 1.37155282497406 8.548772811889648 255 125 0
-9.055595397949219 1.066414475440979 7.835427761077881 255 125 0
-5.951408863067627 -9.592877388000488 -4.921933650970459 255 125 0
-12.852884292602539 -7.403634548187256 -5.385725975036621 255 125 0
8.233518600463867 9.08381175994873 -3.4389190673828125 255 125 0
1.8458036184310913 -0.7886601686477661 7.3207902908325195 255 125 0
7.32320499420166 -8.990762710571289 -7.770907878875732 255 125 0
1.3008981943130493 -7.0766706466674805 -10.447333335876465 255 125 0
9.496175765991211 -10.823956489562988 -9.432402610778809 255 125 0
9.728960037231445 -11.22099781036377 -9.573761940002441 255 125 0
-9.483417510986328 10.659223556518555 -9.2374906539917 255 125 0
5.396346092224121 -9.025436401367188 -11.701933860778809 255 125 0
10.178678512573242 0.7146141529083252 8.55691909790039 255 125 0
10.025487899780273 -9.429107666015625 -6.697321891784668 255 125 0
10.873396873474121 -17.36395263671875 -5.194786071777344 255 125 0
5.734804153442383 -1.8520716428756714 11.157892227172852 255 125 0
-13.149983406066895 -2.391496181488037 2.7374026775360107 255 125 0
11.588805198669434 -17.064218521118164 9.0231004890029e-08 255 125 0
7.489925384521484 1.032037377357483 12.049962043762207 255 125 0
-7.223514080047607 -4.238290786743164 2.28847074508667 255 125 0
-7.207708358764648 16.098297119140625 -2.3168389797210693 255 125 0
-0.9917921423912048 0.29626208543777466 7.525820732116699 255 125 0
-2.1952831745147705 -0.7041043639183044 7.236887454986572 255 125 0
-7.4439167976379395 -5.505917549133301 -1.6371221542358398 255 125 0
8.270423889160156 6.152963638305664 6.089902400970459 255 125 0
-13.70737075805664 -6.493969917297363 -5.046545028686523 255 125 0
5.727959632873535 5.016994476318359 -5.54997444152832 255 125 0
-3.855520009994507 14.420235633850098 -11.578369140625 255 125 0
8.325928688049316 2.539034128189087 -0.623437762260437 255 125 0
3.845047950744629 1.0849719047546387 13.903951644897461 255 125 0
7.2133402824401855 2.595764636993408 12.185606002807617 255 125 0
4.525317668914795 -14.39968490600586 -11.44476318359375 255 125 0
4.075771808624268 0.31900373101234436 6.447092056274414 255 125 0
8.835893630981445 -13.406572341918945 -6.965183274587616e-08 255 125 0
5.454508304595947 3.4519784450531006 12.144118309020996 255 125 0
2.158632516860962 -14.224408149719238 -11.202377319335938 255 125 0
1.7901707887649536 -12.987460136413574 -12.959174156188965 255 125 0
-5.35136079788208 2.078930616378784 10.291556358337402 255 125 0
-0.8160056471824646 -13.161413192749023 -10.413850784301758 255 125 0
7.453152656555176 5.106688976287842 -1.5197755098342896 255 125 0
-1.8755316734313965 3.2826876640319824 11.796774864196777 255 125 0
-10.389954566955566 -0.41789305210113525 3.450831890106201 255 125 0
-6.371891498565674 1.5433491468429565 8.93359088897705 255 125 0
-13.310906410217285 -3.965585708618164 -2.2895870208740234 255 125 0
7.184631824493408 6.892906188964844 -2.7244296073913574 255 125 0
-6.833922863006592 -4.0938615798950195 11.145293235778809 255 125 0
-0.1959325522184372 -12.357973098754883 -12.876081466674805 255 125 0
6.21212911605835 4.185845375061035 11.44926643371582 255 125 0
13.26157283782959 6.961635589599609 -5.2365570068359375 255 125 0
-7.488862991333008 -5.329662322998047 -1.0660290718078613 255 125 0
-4.325277805328369 -8.27376937866211 -6.2036309242248535 255 125 0
-5.25070333480835 -10.48011589050293 -12.402517318725586 255 125 0
-9.473625183105469 -3.698760986328125 9.858719825744629 255 125 0
-7.2453813552856445 15.262852668762207 -2.159916877746582 255 125 0
-10.278277397155762 0.40805184841156006 6.697971820831299 255 125 0
7.739165782928467 0.16641756892204285 5.325043201446533 255 125 0
-11.643430709838867 -5.633986473083496 5.962885856628418 255 125 0
7.066572666168213 4.156111240386963 2.667351484298706 255 125 0
-3.7015485763549805 -6.1998186111450195 -12.301214218139648 255 125 0
8.032057762145996 -16.464553833007812 -3.4049463272094727 255 125 0
3.5892508029937744 -10.473219871520996 -14.03331470489502 255 125 0
12.352531433105469 -13.762565612792969 -7.4266533851623535 255 125 0
10.11034870147705 -15.954434394836426 -7.370079040527344 255 125 0
-11.375590324401855 17.14288330078125 -4.7390594482421875 255 125 0
7.975029945373535 -15.034197807312012 1.4949534943298204e-09 255 125 0
0.25867965817451477 -11.562152862548828 -7.59312105178833 255 125 0
-2.3345847129821777 11.125951766967773 -14.351821899414062 255 125 0
11.365848541259766 7.702746868133545 3.7846341133117676 255 125 0
14.205392837524414 4.628087520599365 -0.6085366606712341 255 125 0
-13.955279350280762 -5.618448734283447 2.309300184249878 255 125 0
6.6854248046875 9.89367961883545 -11.66938304901123 255 125 0
0.8356919884681702 -1.8141791820526123 13.317352294921875 255 125 0
2.731867790222168 4.321691036224365 10.49189567565918 255 125 0
-8.641775131225586 -3.5285110473632812 -6.570916652679443 255 125 0
-3.627082347869873 10.139756202697754 -13.727193832397461 255 125 0
3.263446569442749 -14.538053512573242 -10.529094696044922 255 125 0
11.294729232788086 1.215667724609375 7.109926223754883 255 125 0
0.4417531490325928 -7.830853462219238 -13.023804664611816 255 125 0
11.945974349975586 7.597570419311523 -7.201143264770508 255 125 0
-12.799919128417969 -3.71618390083313 -3.652539014816284 255 125 0
7.394769191741943 3.943892478942871 -4.784975051879883 255 125 0
-14.133323669433594 -3.8425424098968506 3.1422064304351807 255 125 0
6.520617485046387 2.020024538040161 13.035512924194336 255 125 0
-12.7926607131958 17.726682662963867 -0.5186849236488342 255 125 0
8.742962837219238 -0.4231158196926117 6.491265296936035 255 125 0
-13.544196128845215 -6.797050952911377 -2.7041990756988525 255 125 0
11.786404609680176 -13.026196479797363 -8.613627433776855 255 125 0
-5.675721168518066 8.442240715026855 -8.8709135055542 255 125 0
-8.049962997436523 9.133113861083984 -7.323098659515381 255 125 0
-2.3187644481658936 13.890661239624023 -12.295797348022461 255 125 0
-13.073941230773926 -2.638367176055908 0.5749657154083252 255 125 0
4.533236503601074 -14.390316009521484 -6.612499237060547 255 125 0
11.764616012573242 -10.81375503540039 -3.6136274337768555 255 125 0
4.831271171569824 -13.462748527526855 -5.967653274536133 255 125 0
-6.537622928619385 15.470587730407715 -9.186442375183105 255 125 0
-12.071105003356934 -8.731131553649902 -0.8681771755218506 255 125 0
0.19284866750240326 -12.818336486816406 -8.43017292022705 255 125 0
-4.12492561340332 10.878623008728027 -6.462825775146484 255 125 0
6.477138996124268 4.648486614227295 -6.10714864730835 255 125 0
-10.839248657226562 10.123321533203125 -6.249123573303223 255 125 0
8.811281204223633 10.426401138305664 -6.209839820861816 255 125 0
-6.632928848266602 11.624478340148926 -3.8581881523132324 255 125 0
12.064386367797852 -11.379179954528809 -4.905546188354492 255 125 0
10.793951034545898 10.152777671813965 -4.951534271240234 255 125 0
-8.20837116241455 -7.526926517486572 -11.624838829040527 255 125 0
13.568277359008789 4.624124526977539 -3.265636444091797 255 125 0
-14.407618522644043 -5.387172222137451 -0.7139974236488342 255 125 0
5.930811882019043 -0.6887051463127136 6.779439926147461 255 125 0
-7.6520586013793945 -7.594878196716309 -0.46559232473373413 255 125 0
10.905097007751465 9.278064727783203 -2.567960262298584 255 125 0
1.4720404148101807 -7.713918209075928 -12.859164237976074 255 125 0
-8.875914573669434 -1.3287036418914795 10.761874198913574 255 125 0
1.7851213216781616 -11.965032577514648 -7.432009696960449 255 125 0
-10.19714641571045 14.9066801071167 -8.202034950256348 255 125 0
-11.813889503479004 -2.1006455421447754 7.4925127029418945 255 125 0
2.4603583812713623 -0.0009064176701940596 7.173248291015625 255 125 0
5.960031509399414 4.695605278015137 -8.484444618225098 255 125 0
-5.831208229064941 10.899567604064941 -13.025382041931152 255 125 0
-12.7848482131958 -2.3850340843200684 0.13333646953105927 255 125 0
0.10355381667613983 -1.274005651473999 7.739068508148193 255 125 0
6.102490425109863 -15.256979942321777 -10.512529373168945 255 125 0
9.824447631835938 -12.712258338928223 -1.000013654106624e-07 255 125 0
-1.2925646305084229 -10.031702995300293 -14.29543685913086 255 125 0
-8.699544906616211 -6.384424686431885 -10.557056427001953 255 125 0
10.614265441894531 -17.721675872802734 -2.8933045864105225 255 125 0
-9.69021987915039 -3.1172211170196533 -6.265705108642578 255 125 0
-1.1177122592926025 9.224555969238281 -13.983905792236328 255 125 0
7.212005615234375 -11.144868850708008 -3.3505043983459473 255 125 0
1.235322117805481 9.548931121826172 -14.40158462524414 255 125 0
3.0863358974456787 5.619078159332275 -11.852672576904297 255 125 0
-8.092899322509766 1.0557488203048706 7.746851444244385 255 125 0
7.509194850921631 9.407208442687988 -11.430510520935059 255 125 0
-6.867372512817383 -5.389583587646484 -3.2421510219573975 255 125 0
-12.731452941894531 12.0540132522583 -1.6012427806854248 255 125 0
1.5826481580734253 6.171663284301758 -10.220728874206543 255 125 0
-11.450206756591797 -7.947126865386963 2.8806426525115967 255 125 0
-7.167119979858398 15.923563003540039 -4.435896396636963 255 125 0
-13.882403373718262 -5.353296756744385 2.751389980316162 255 125 0
-10.220037460327148 0.5173738598823547 6.623973369598389 255 125 0
6.243800640106201 11.42600154876709 -8.445355415344238 255 125 0
-2.6338813304901123 -5.584267616271973 -11.381741523742676 255 125 0
-0.36217695474624634 -2.7931087017059326 8.562862396240234 255 125 0
-10.819267272949219 -3.13287091255188 -5.643858432769775 255 125 0
0.37896573543548584 -3.498831272125244 12.292652130126953 255 125 0
7.528040409088135 -16.5512638092041 -2.2499423027038574 255 125 0
-7.9140191078186035 -4.717879295349121 9.969600677490234 255 125 0
3.3309662342071533 12.121757507324219 -12.25277328491211 255 125 0
-12.929488182067871 -7.530314922332764 -4.962510585784912 255 125 0
0.19823160767555237 0.13534781336784363 14.885796546936035 255 125 0
-11.042132377624512 10.306873321533203 -3.5482606887817383 255 125 0
13.056324005126953 6.252391815185547 -6.337120532989502 255 125 0
-8.825369834899902 13.348649024963379 -10.84192180633545 255 125 0
0.9906233549118042 2.8238439559936523 7.683472633361816 255 125 0
13.252080917358398 3.237186908721924 4.923827171325684 255 125 0
11.995919227600098 7.133939743041992 3.5019071102142334 255 125 0
-7.646459102630615 13.864928245544434 -0.4892917573451996 255 125 0
2.2497761249542236 5.724658966064453 -11.25480842590332 255 125 0
5.206943988800049 11.992888450622559 -11.094815254211426 255 125 0
1.1837482452392578 12.880040168762207 -9.75058364868164 255 125 0
7.428539752960205 7.239672660827637 -1.8325059413909912 255 125 0
6.708349227905273 -8.524395942687988 -9.070450782775879 255 125 0
14.235590934753418 4.844017028808594 -1.155623435974121 255 125 0
-0.34926486015319824 -0.7843904495239258 14.4021577835083 255 125 0
1.2574435472488403 10.072700500488281 -7.473794460296631 255 125 0
3.8494997024536133 1.436100721359253 13.64848804473877 255 125 0
6.287499904632568 -1.8341022729873657 9.70017147064209 255 125 0
7.800317764282227 7.811253070831299 -12.017531394958496 255 125 0
13.898641586303711 -16.202672958374023 -0.5216238498687744 255 125 0
0.5430668592453003 10.695863723754883 -7.530015468597412 255 125 0
-8.3639554977417 0.10715501010417938 9.79006576538086 255 125 0
6.960286617279053 -11.73013973236084 -3.347405433654785 255 125 0
-7.642552852630615 -7.186263084411621 -11.592902183532715 255 125 0
5.578327655792236 9.485149383544922 -5.345662593841553 255 125 0
-12.302311897277832 -1.1252986192703247 2.341096878051758 255 125 0
-13.055906295776367 -7.595927715301514 -3.1781139373779297 255 125 0
0.9411211013793945 -3.1860485076904297 12.27464771270752 255 125 0
-5.9346489906311035 -9.0380220413208 -4.76421594619751 255 125 0
11.711383819580078 8.365744590759277 1.366808295249939 255 125 0
6.764262676239014 -1.8331941366195679 9.727603912353516 255 125 0
-0.4418398439884186 -0.05255758762359619 7.657853126525879 255 125 0
-6.821579456329346 -0.4751985967159271 12.27635669708252 255 125 0
-10.04548454284668 -0.5254374742507935 8.50181770324707 255 125 0
12.664730072021484 -12.021686553955078 -2.1414265632629395 255 125 0
-8.079124450683594 15.690530776977539 1.5632596841896884e-05 255 125 0
-3.344012975692749 -12.01099681854248 -9.386276245117188 255 125 0
8.910639762878418 -11.151494979858398 -2.2509567737579346 255 125 0
1.0381958484649658 -12.385834693908691 -13.177680015563965 255 125 0
-12.181741714477539 -5.829744815826416 -6.891847133636475 255 125 0
-3.8903515338897705 -5.166580677032471 -11.523158073425293 255 125 0
12.010396003723145 -11.380949020385742 -5.825947284698486 255 125 0
7.326975345611572 -9.347455024719238 -10.79427719116211 255 125 0
-2.0542030334472656 -3.6616227626800537 8.613532066345215 255 125 0
-5.650895118713379 2.0730624198913574 10.29472827911377 255 125 0
-9.931266784667969 14.930511474609375 -8.40011978149414 255 125 0
-9.703665733337402 11.24225902557373 -1.5417420864105225 255 125 0
-2.765967845916748 -0.19259954988956451 14.009511947631836 255 125 0
-4.145616054534912 -0.49691617488861084 13.678619384765625 255 125 0
5.637986183166504 9.769392013549805 -5.309615135192871 255 125 0
-6.653343677520752 1.7074501514434814 9.386859893798828 255 125 0
5.161844730377197 -15.021049499511719 -9.365959167480469 255 125 0
-1.722668170928955 13.510738372802734 -12.58157730102539 255 125 0
1.8591455221176147 5.722136974334717 -11.801944732666016 255 125 0
-1.648866891860962 -12.951885223388672 -10.382091522216797 255 125 0
-10.097907066345215 9.572056770324707 -5.960608959197998 255 125 0
-5.1573166847229 10.175263404846191 -12.822402000427246 255 125 0
6.8486738204956055 6.748507976531982 -3.2726595401763916 255 125 0
-3.3421499729156494 -12.484274864196777 -10.591007232666016 255 125 0
13.037981033325195 4.919243335723877 -4.935020446777344 255 125 0
-4.917869567871094 1.6554913520812988 9.14028549194336 255 125 0
7.062161922454834 4.330590724945068 2.6780004501342773 255 125 0
0.7298853993415833 -9.03762435913086 -13.87810230255127 255 125 0
1.3430675268173218 2.535348892211914 7.441486835479736 255 125 0
-1.7147785425186157 10.189637184143066 -14.6387357711792 255 125 0
-7.854552268981934 15.130705833435059 -9.974126815795898 255 125 0
-6.778783798217773 1.1342434883117676 7.8729777336120605 255 125 0
-5.031646728515625 -9.602194786071777 -5.770766735076904 255 125 0
-8.799592018127441 -0.16046461462974548 9.550263404846191 255 125 0
0.8216067552566528 -1.5704593658447266 13.500568389892578 255 125 0
8.432855606079102 -9.292604446411133 -6.862310886383057 255 125 0
-6.799515247344971 -4.369741439819336 10.931918144226074 255 125 0
11.467780113220215 -17.239608764648438 -4.3666863441467285 255 125 0
-4.231683731079102 14.962573051452637 -11.12563419342041 255 125 0
-0.18441832065582275 -8.501741409301758 -13.559569358825684 255 125 0
-10.502707481384277 -8.508784294128418 -0.2048407346010208 255 125 0
-12.536998748779297 -1.3592140674591064 1.8953510522842407 255 125 0
-9.400518417358398 -6.855475902557373 5.562366008758545 255 125 0
-5.355250358581543 -9.961970329284668 -12.770995140075684 255 125 0
1.3390843868255615 6.770803451538086 -8.263179779052734 255 125 0
6.467228889465332 11.64246654510498 -10.288981437683105 255 125 0
5.330752372741699 -9.933517456054688 -5.725345134735107 255 125 0
-12.525142669677734 -4.847774028778076 5.611881256103516 255 125 0
-2.834284543991089 -1.681460976600647 13.551490783691406 255 125 0
-10.088726043701172 -9.328043937683105 -8.594156265258789 255 125 0
-3.5225768089294434 12.644515037536621 -6.712327480316162 255 125 0
-10.445426940917969 10.547399520874023 -3.172285318374634 255 125 0
9.21885871887207 -11.218857765197754 -10.423734664916992 255 125 0
6.328326225280762 11.376789093017578 -10.648660659790039 255 125 0
7.749290943145752 6.476634502410889 -10.996001243591309 255 125 0
0.8313162326812744 12.830866813659668 -9.291487693786621 255 125 0
4.662502288818359 -7.845577716827393 -11.238373756408691 255 125 0
-5.592392921447754 -10.51990795135498 -6.653624057769775 255 125 0
1.5912261009216309 -13.941696166992188 -12.250893592834473 255 125 0
-9.43647575378418 17.072860717773438 -3.8012399673461914 255 125 0
7.759589195251465 6.291042327880859 4.038261890411377 255 125 0
8.870360374450684 -10.874951362609863 -3.1445090770721436 255 125 0
12.1771879196167 1.3602571487426758 3.584181070327759 255 125 0
-2.5133485794067383 -6.162516117095947 -12.160381317138672 255 125 0
-10.687912940979004 -9.149574279785156 -7.392873764038086 255 125 0
-9.780558586120605 16.754863739013672 -6.951147556304932 255 125 0
3.593090772628784 3.771334648132324 12.042649269104004 255 125 0
6.868383884429932 5.671180725097656 3.1458191871643066 255 125 0
12.108004570007324 -16.987178802490234 -3.319575071334839 255 125 0
-7.722224712371826 -8.235023498535156 -1.8363546133041382 255 125 0
-9.224735260009766 11.448051452636719 -10.715022087097168 255 125 0
-4.469494342803955 -4.83133602142334 10.27456283569336 255 125 0
1.8142030239105225 11.170350074768066 -13.323165893554688 255 125 0
8.321160316467285 8.752483367919922 -2.8437917232513428 255 125 0
5.023077487945557 6.525448799133301 -12.163747787475586 255 125 0
2.9001870155334473 -14.316083908081055 -9.902162551879883 255 125 0
-11.426344871520996 10.785839080810547 -1.8009533882141113 255 125 0
-0.04708964750170708 6.78749418258667 -9.770041465759277 255 125 0
6.5031418800354 4.395110130310059 -9.569520950317383 255 125 0
-2.4502968788146973 7.383973121643066 -10.336557388305664 255 125 0
-9.549845695495605 -4.845577239990234 -8.882558822631836 255 125 0
-1.9910602569580078 -7.838790416717529 -7.416060924530029 255 125 0
-6.957372188568115 15.834246635437012 -4.749877452850342 255 125 0
5.8956522941589355 -12.444961547851562 -12.509171485900879 255 125 0
11.562012672424316 -12.65922737121582 -8.580601692199707 255 125 0
-7.922243118286133 0.9484081268310547 9.44519329071045 255 125 0
-11.557701110839844 -2.195197343826294 8.5951566696167 255 125 0
-2.4793639183044434 -3.8897523880004883 8.754660606384277 255 125 0
7.808014392852783 10.576762199401855 -6.87912654876709 255 125 0
-11.723186492919922 -0.5485995411872864 3.102165937423706 255 125 0
-2.3211421966552734 9.792169570922852 -14.272196769714355 255 125 0
-13.263105392456055 -4.569156169891357 4.791043281555176 255 125 0
-1.8794113397598267 2.4981603622436523 12.365068435668945 255 125 0
8.053547859191895 -0.5445208549499512 9.70898723602295 255 125 0
-9.002663612365723 -2.1993112564086914 -0.5566002130508423 255 125 0
9.864893913269043 -15.182307243347168 -8.237616539001465 255 125 0
5.947096824645996 9.310905456542969 -12.852700233459473 255 125 0
2.570847511291504 5.534900188446045 -11.650864601135254 255 125 0
8.662882804870605 4.389809608459473 -9.144532203674316 255 125 0
-10.633222579956055 -5.026551723480225 -7.812772750854492 255 125 0
-3.151193141937256 14.144359588623047 -8.624771118164062 255 125 0
1.5661412477493286 12.281838417053223 -8.708476066589355 255 125 0
-7.55307149887085 -3.838752269744873 -0.25019004940986633 255 125 0
6.320896148681641 -1.5995346307754517 10.709919929504395 255 125 0
4.129281044006348 10.953434944152832 -12.932159423828125 255 125 0
-6.955996990203857 -1.54703688621521 2.9343090057373047 255 125 0
10.237360000610352 10.18016242980957 -5.169549465179443 255 125 0
9.231245040893555 -10.407967567443848 -4.381020545959473 255 125 0
12.720708847045898 -15.885116577148438 -3.842989683151245 255 125 0
7.186993598937988 -13.05831527709961 -2.403106212615967 255 125 0
-8.151052474975586 -6.251561641693115 -10.677292823791504 255 125 0
5.849812030792236 -15.403423309326172 -10.32667350769043 255 125 0
6.000487804412842 4.678114891052246 -8.513200759887695 255 125 0
-4.507089138031006 8.794285774230957 -7.788436412811279 255 125 0
-2.569751739501953 -7.743959903717041 -7.279419422149658 255 125 0
5.972885608673096 2.71182918548584 12.60682201385498 255 125 0
5.161687850952148 10.50916862487793 -12.455645561218262 255 125 0
10.6166353225708 -10.985780715942383 -1.6876499652862549 255 125 0
-3.6892566680908203 -4.564440727233887 10.184067726135254 255 125 0
-5.957673072814941 12.618383407592773 -12.364933967590332 255 125 0
7.58936071395874 -0.6633464694023132 10.148903846740723 255 125 0
7.769495487213135 2.213236093521118 0.9203094840049744 255 125 0
1.1338489055633545 9.36249828338623 -7.483521461486816 255 125 0
-8.877259254455566 16.527687072753906 -6.134929180145264 255 125 0
-8.647327423095703 -11.208634376525879 -8.39201545715332 255 125 0
7.233419895172119 5.896453380584717 -10.783429145812988 255 125 0
3.9217164516448975 -13.545522689819336 -12.165863990783691 255 125 0
-12.903641700744629 -6.360160827636719 3.0380918979644775 255 125 0
-11.854827880859375 -9.348543167114258 -2.8863611221313477 255 125 0
-7.539052486419678 -7.037134170532227 -0.4283192753791809 255 125 0
-0.7947550415992737 2.522117853164673 8.759828567504883 255 125 0
-0.13343925774097443 -3.6791067123413086 11.644200325012207 255 125 0
0.03440328687429428 -11.672599792480469 -13.407527923583984 255 125 0
2.903988838195801 1.6671414375305176 13.556312561035156 255 125 0
10.022756576538086 8.603325843811035 -0.962310254573822 255 125 0
5.572478294372559 1.5541737079620361 5.168783187866211 255 125 0
12.276799201965332 1.6516847610473633 0.11999417841434479 255 125 0
-9.809085845947266 -4.647672653198242 8.910662651062012 255 125 0
11.040730476379395 5.477014064788818 7.167413234710693 255 125 0
4.3704729080200195 8.922993659973145 -14.189477920532227 255 125 0
-4.658863067626953 -11.570048332214355 -8.482661247253418 255 125 0
-13.8562593460083 15.686058044433594 -1.4790860414505005 255 125 0
-12.41382122039795 -6.8346757888793945 -7.5150227546691895 255 125 0
2.601707935333252 -7.98602819442749 -8.681015968322754 255 125 0
10.533114433288574 -17.96993637084961 -1.4630553722381592 255 125 0
-7.563951015472412 -3.8814144134521484 -0.11195828765630722 255 125 0
3.061044692993164 11.416337013244629 -7.708765029907227 255 125 0
10.950252532958984 4.563045978546143 -6.931506156921387 255 125 0
9.529001235961914 -14.353317260742188 -9.281407356262207 255 125 0
1.9428669214248657 0.6777753233909607 7.297487258911133 255 125 0
-12.778334617614746 -1.8627654314041138 1.490847110748291 255 125 0
7.967288970947266 4.5987324714660645 10.03032112121582 255 125 0
7.051431655883789 9.587310791015625 -11.649085998535156 255 125 0
-6.848924160003662 -9.770710945129395 -11.647061347961426 255 125 0
2.300440788269043 5.8561692237854 -10.670666694641113 255 125 0
-5.8856658935546875 -12.108108520507812 -10.217174530029297 255 125 0
-6.9930739402771 13.82123851776123 -3.210864305496216 255 125 0
-6.875206470489502 1.3976502418518066 8.578298568725586 255 125 0
-8.163318634033203 9.532856941223145 -6.248439788818359 255 125 0
0.4681529700756073 -12.398056983947754 -13.02110767364502 255 125 0
12.324861526489258 6.6891188621521 3.5372164249420166 255 125 0
-6.977560043334961 9.537750244140625 -6.347887992858887 255 125 0
-3.7776339054107666 -5.860551834106445 -7.317042350769043 255 125 0
-0.4690001904964447 10.56334114074707 -14.320042610168457 255 125 0
13.191671371459961 -15.528204917907715 -3.3793294429779053 255 125 0
11.514911651611328 -13.458869934082031 -6.736500068882378e-08 255 125 0
-6.700336456298828 -5.67128849029541 4.166665077209473 255 125 0
7.12057638168335 -11.903402328491211 -2.679753303527832 255 125 0
-0.4856121838092804 3.322178363800049 11.039494514465332 255 125 0
13.534703254699707 4.50199556350708 4.439783096313477 255 125 0
4.58155632019043 4.506396770477295 7.3315205574035645 255 125 0
-1.8441715240478516 -5.8033061027526855 -11.85478401184082 255 125 0
11.424707412719727 4.580237865447998 -6.4138007164001465 255 125 0
7.546458721160889 6.654596328735352 -0.3342186510562897 255 125 0
-8.453034400939941 -10.790473937988281 -9.310589790344238 255 125 0
2.2392616271972656 -8.805088996887207 -13.544495582580566 255 125 0
-11.784581184387207 10.86064338684082 -1.3386632204055786 255 125 0
-8.74205493927002 -3.900362730026245 -8.763301849365234 255 125 0
0.8068320751190186 -13.5921049118042 -10.552824974060059 255 125 0
-6.355950355529785 15.38331127166748 -7.498898983001709 255 125 0
-12.219161987304688 -1.8667500019073486 -0.6710758805274963 255 125 0
-7.079213619232178 -10.967424392700195 -7.7381439208984375 255 125 0
7.715697765350342 2.3486385345458984 0.6286265850067139 255 125 0
5.578392028808594 -0.10568896681070328 12.61526107788086 255 125 0
-12.3115234375 18.2884521484375 -0.6859889626502991 255 125 0
6.954533576965332 4.846613883972168 2.9378368854522705 255 125 0
8.159754753112793 -16.712284088134766 -2.802072763442993 255 125 0
-11.958714485168457 -8.890698432922363 -0.8104580640792847 255 125 0
-7.810423374176025 -9.413390159606934 -4.11984395980835 255 125 0
6.398014545440674 -8.800026893615723 -8.366299629211426 255 125 0
-1.0120923519134521 -6.408989429473877 -9.916999816894531 255 125 0
-7.562527179718018 -5.979863166809082 4.967296600341797 255 125 0
7.544321537017822 0.5753792524337769 11.502462387084961 255 125 0
12.919886589050293 -12.575345993041992 -3.9791347980499268 255 125 0
10.507169723510742 9.501677513122559 -3.5581583976745605 255 125 0
10.340258598327637 2.7211341857910156 -4.360517501831055 255 125 0
12.507891654968262 7.8992600440979 0.36018842458724976 255 125 0
6.6071391105651855 11.073041915893555 -10.6717529296875 255 125 0
-9.712644577026367 -6.403039455413818 -10.172727584838867 255 125 0
-8.76153564453125 12.693726539611816 -11.521058082580566 255 125 0
-0.13731080293655396 -6.620690822601318 -10.06071662902832 255 125 0
12.139670372009277 6.990021705627441 -7.881356239318848 255 125 0
-9.101118087768555 -1.8169385194778442 11.04251480102539 255 125 0
6.804612159729004 -15.644665718078613 -7.7140045166015625 255 125 0
-9.743517875671387 17.357458114624023 -3.3166561126708984 255 125 0
-8.89069938659668 -0.2363577038049698 9.5283784866333 255 125 0
-0.4412328004837036 12.269157409667969 -7.607479572296143 255 125 0
-7.13740873336792 -4.674568176269531 2.496345281600952 255 125 0
-2.0568675994873047 -1.4392338991165161 13.789705276489258 255 125 0
7.643058776855469 6.807401657104492 1.3513365983963013 255 125 0
-10.631423950195312 -0.8214840292930603 8.147246360778809 255 125 0
6.194352149963379 2.3491714000701904 4.637652397155762 255 125 0
-14.141186714172363 15.009387969970703 -2.0633440017700195 255 125 0
-4.709763526916504 -11.818242073059082 -9.167810440063477 255 125 0
4.191399097442627 -11.901643753051758 -6.435288906097412 255 125 0
4.868256568908691 10.10486125946045 -5.870886325836182 255 125 0
-14.382548332214355 15.571222305297852 -0.4639880359172821 255 125 0
6.590997219085693 4.317398548126221 -4.014186382293701 255 125 0
4.03524112701416 5.727795600891113 -7.209547519683838 255 125 0
3.9064173698425293 -0.7275236248970032 12.81801700592041 255 125 0
-3.2105185985565186 -6.145245552062988 -7.602897644042969 255 125 0
-4.57744026184082 14.2323579788208 -11.547361373901367 255 125 0
-13.751411437988281 13.297013282775879 -0.1411762833595276 255 125 0
6.655025482177734 -15.50845718383789 -3.8323135375976562 255 125 0
14.348305702209473 5.611802101135254 -2.0565826892852783 255 125 0
-14.233837127685547 -5.943443775177002 -4.592749118804932 255 125 0
8.092835426330566 4.107199192047119 -9.166101455688477 255 125 0
2.0826542377471924 -9.499581336975098 -14.109017372131348 255 125 0
13.597810745239258 3.740508794784546 5.045022964477539 255 125 0
3.1617329120635986 -7.841960906982422 -9.313035011291504 255 125 0
6.559756755828857 -10.913276672363281 -12.591938018798828 255 125 0
0.7265189290046692 -1.4511775970458984 7.589507579803467 255 125 0
11.880887031555176 -13.49185848236084 -6.592309631514581e-08 255 125 0
-14.03916072845459 -5.244832515716553 2.640164375305176 255 125 0
4.740809917449951 -8.068000793457031 -9.293588638305664 255 125 0
0.25666412711143494 -3.2225375175476074 10.597506523132324 255 125 0
4.584373474121094 -1.7321430444717407 9.23401165008545 255 125 0
9.275433540344238 0.8842231631278992 2.811568260192871 255 125 0
-2.403583526611328 7.9814772605896 -8.615595817565918 255 125 0
6.4783172607421875 11.622361183166504 -9.030766487121582 255 125 0
-6.965503215789795 -4.549965858459473 2.91135835647583 255 125 0
-5.277583599090576 -1.361154317855835 5.420647144317627 255 125 0
2.431346893310547 -14.389328002929688 -11.458770751953125 255 125 0
7.284989833831787 -15.086271286010742 -1.9949227571487427 255 125 0
-3.576878070831299 -10.40561294555664 -6.662250995635986 255 125 0
-12.876193046569824 13.929644584655762 2.481969931977801e-05 255 125 0
7.599793434143066 -16.239471435546875 -3.408649444580078 255 125 0
7.949723243713379 -8.545701026916504 -8.896005630493164 255 125 0
-9.82429313659668 17.417930603027344 -3.1384057998657227 255 125 0
9.663723945617676 -0.8503054976463318 7.4302215576171875 255 125 0
7.85614538192749 3.993809938430786 -7.3198113441467285 255 125 0
-12.032144546508789 -0.9274367690086365 1.095978856086731 255 125 0
-7.476155757904053 -7.062556743621826 -1.2274885177612305 255 125 0
9.669407844543457 6.974972724914551 5.381306171417236 255 125 0
11.805719375610352 2.4457180500030518 8.584473609924316 255 125 0
-9.977814674377441 0.12798240780830383 5.2055182456970215 255 125 0
7.199111461639404 4.34428071975708 2.347376585006714 255 125 0
7.678735733032227 -16.01439666748047 -0.35485801100730896 255 125 0
3.3383121490478516 -11.23549747467041 -6.788651943206787 255 125 0
-14.05073356628418 -4.119384765625 0.33043038845062256 255 125 0
-11.142509460449219 18.047842025756836 -2.0885026454925537 255 125 0
-4.640909671783447 -7.086558818817139 -6.010210990905762 255 125 0
-6.493289947509766 11.086541175842285 -4.0216851234436035 255 125 0
7.622931480407715 -13.63443374633789 -11.283869743347168 255 125 0
11.888379096984863 1.5876400470733643 -1.2048901319503784 255 125 0
-8.628454208374023 -2.001150131225586 0.6674563884735107 255 125 0
-7.594972610473633 -3.98372745513916 -6.028707981109619 255 125 0
-3.1057190895080566 -2.3926360607147217 7.018310546875 255 125 0
12.396843910217285 8.59597110748291 -4.233347415924072 255 125 0
-9.97690486907959 12.676322937011719 1.9165790945407934e-05 255 125 0
7.939423561096191 -13.374341011047363 -7.106119426225632e-08 255 125 0
9.400754928588867 -10.02447509765625 -8.543678283691406 255 125 0
-7.0431036949157715 13.53794002532959 -3.002473831176758 255 125 0
10.588945388793945 5.141224384307861 8.07138442993164 255 125 0
-2.0524742603302 12.898143768310547 -7.321264266967773 255 125 0
7.151218891143799 -9.608514785766602 -6.143085956573486 255 125 0
-2.716221332550049 -7.06186580657959 -7.189662933349609 255 125 0
-0.13960692286491394 7.870112895965576 -7.583741664886475 255 125 0
0.6694349050521851 12.195706367492676 -12.864656448364258 255 125 0
-4.561127662658691 -11.596184730529785 -8.531805038452148 255 125 0
-7.004327774047852 9.975000381469727 -11.523974418640137 255 125 0
-11.218107223510742 -1.699142575263977 -1.2090779542922974 255 125 0
12.945181846618652 -12.205477714538574 -0.30593132972717285 255 125 0
-11.50236988067627 -1.7170268297195435 -1.6272807121276855 255 125 0
-1.3346890211105347 -12.79218578338623 -9.618310928344727 255 125 0
10.262051582336426 10.37873649597168 -6.237534999847412 255 125 0
-12.3473482131958 -6.476651191711426 3.7648565769195557 255 125 0
-12.928709030151367 12.533794403076172 -3.4917349815368652 255 125 0
-1.024675726890564 -13.381590843200684 -11.956369400024414 255 125 0
0.47538402676582336 6.785822868347168 -9.190521240234375 255 125 0
-0.5375950932502747 7.062981605529785 -12.465353012084961 255 125 0
-8.247802734375 -6.759067058563232 3.1363675594329834 255 125 0
-13.333602905273438 -6.0999627113342285 2.6868703365325928 255 125 0
-7.682361602783203 13.017337799072266 -0.33974382281303406 255 125 0
7.997159481048584 1.0801445245742798 11.511235237121582 255 125 0
13.260284423828125 -13.334868431091309 -6.720634460449219 255 125 0
12.846256256103516 -15.70676040649414 -3.87737774848938 255 125 0
-6.356534481048584 9.653560638427734 -6.098567962646484 255 125 0
-11.24563980102539 -1.3203275203704834 0.3328322470188141 255 125 0
1.3942689895629883 -10.868857383728027 -7.593907356262207 255 125 0
1.3886525630950928 6.057816028594971 -10.896600723266602 255 125 0
9.737730979919434 -17.972543716430664 -0.10355667024850845 255 125 0
8.695630073547363 10.796012878417969 -7.2507548332214355 255 125 0
9.217825889587402 -12.53551197052002 -11.281221389770508 255 125 0
4.799066066741943 4.963874816894531 -10.145474433898926 255 125 0
-2.4366774559020996 -12.879334449768066 -11.934951782226562 255 125 0
5.886212348937988 9.006081581115723 -4.8432440757751465 255 125 0
8.567623138427734 5.099331378936768 9.291062355041504 255 125 0
-4.41610050201416 -11.848520278930664 -9.184467315673828 255 125 0
-10.116881370544434 10.992097854614258 -8.625986099243164 255 125 0
0.5469464063644409 -0.03624391928315163 14.745905876159668 255 125 0
-9.049695014953613 -0.8420700430870056 10.017128944396973 255 125 0
6.465959548950195 -10.679096221923828 -12.450493812561035 255 125 0
-11.609277725219727 10.572765350341797 -3.522953510284424 255 125 0
8.237549781799316 10.602663040161133 -6.839558124542236 255 125 0
8.73854923248291 -9.135489463806152 -7.2514753341674805 255 125 0
3.8730552196502686 -8.541413307189941 -7.9954071044921875 255 125 0
-7.532562255859375 -3.114304304122925 -0.5107849836349487 255 125 0
-2.3561277389526367 -3.6453723907470703 8.095585823059082 255 125 0
4.730381488800049 -14.865174293518066 -9.322982788085938 255 125 0
-3.7187340259552 -5.612179756164551 -11.90971565246582 255 125 0
